# .PCD v.7 - Point Cloud Data file format
FIELDS x y z rgb imX imY
SIZE 4 4 4 4 4 4
TYPE F F F F F F
COUNT 1 1 1 1 1 1
WIDTH 834
HEIGHT 1
VIEWPOINT 0 0 0 1 0 0 0
POINTS 834
DATA ascii
0.0057246331 0.653 -0.050376773 1.5207826e-38 325 284
0.0068695596 0.653 -0.050376773 1.5115271e-38 326 284
0.0080144862 0.653 -0.050376773 1.5115271e-38 327 284
0.0091594132 0.653 -0.050376773 1.4931243e-38 328 284
0.010304339 0.653 -0.050376773 1.474685e-38 329 284
0.011449266 0.653 -0.050376773 1.4654649e-38 330 284
0.012613479 0.65399998 -0.050453916 1.4470258e-38 331 284
0.013760159 0.65399998 -0.050453916 1.4286576e-38 332 284
0.014906839 0.65399998 -0.050453916 1.419438e-38 333 284
0.016078066 0.65499997 -0.050531063 1.3918513e-38 334 284
0.0172791 0.65700001 -0.050685361 1.3918513e-38 335 284
0.01843104 0.65700001 -0.050685361 1.3824886e-38 336 284
0.019612785 0.65799999 -0.050762504 1.3548657e-38 337 284
0.02076648 0.65799999 -0.050762504 1.3456121e-38 338 284
0.021953486 0.65899998 -0.050839648 1.3456121e-38 339 284
0.023108931 0.65899998 -0.050839648 1.3086998e-38 340 284
0.02433802 0.66100001 -0.050993945 1.2441629e-38 341 284
0.025496973 0.66100001 -0.050993945 1.1705158e-38 342 284
0.026655925 0.66100001 -0.050993945 1.1336017e-38 343 284
0.027856959 0.662 -0.051071092 1.1427146e-38 344 284
0.029061496 0.66299999 -0.051148236 1.1795569e-38 345 284
0.030269546 0.66399997 -0.051225383 1.2165778e-38 346 284
0.031433757 0.66399997 -0.051225383 1.2811147e-38 347 284
0.032696161 0.66600001 -0.051379681 1.2904052e-38 348 284
0.033914726 0.667 -0.051456824 1.2996247e-38 349 284
0.035084199 0.667 -0.051456824 1.2905845e-38 350 284
0.036416732 0.67000002 -0.051688269 1.3090235e-38 351 284
0.037591465 0.67000002 -0.051688269 1.3181712e-38 352 284
0.038824059 0.671 -0.051765412 1.3181712e-38 353 284
0.040000543 0.671 -0.051765412 1.3181359e-38 354 284
0.041238401 0.67199999 -0.051842555 1.3181359e-38 355 284
0.042542879 0.67400002 -0.051996857 1.3273201e-38 356 284
0.043724626 0.67400002 -0.051996857 1.3549787e-38 357 284
0.045039624 0.676 -0.052151144 1.3182453e-38 358 284
0.046361636 0.67799997 -0.052305438 1.3090258e-38 359 284
-0.089509413 0.66299999 -0.052310698 1.7977069e-38 243 285
-0.088346958 0.66299999 -0.052310698 1.7975958e-38 244 285
-0.087184496 0.66299999 -0.052310698 1.7422785e-38 245 285
-0.086022034 0.66299999 -0.052310698 1.7604976e-38 246 285
-0.084731586 0.662 -0.0522318 1.7051803e-38 247 285
-0.083570883 0.662 -0.0522318 1.7233628e-38 248 285
-0.081787735 0.65700001 -0.051837299 1.677265e-38 249 285
-0.080635801 0.65700001 -0.051837299 1.7232164e-38 250 285
-0.079241894 0.65499997 -0.051679496 1.7600946e-38 251 285
-0.078093462 0.65499997 -0.051679496 1.7510921e-38 252 285
-0.076945029 0.65499997 -0.051679496 1.7603117e-38 253 285
-0.076028034 0.65700001 -0.051837299 1.7786063e-38 254 285
-0.074648157 0.65499997 -0.051679496 1.7786063e-38 255 285
-0.073387519 0.65399998 -0.051600594 1.7694934e-38 256 285
-0.072130375 0.653 -0.0515217 1.778713e-38 257 285
-0.070985451 0.653 -0.0515217 1.8062278e-38 258 285
-0.069840528 0.653 -0.0515217 1.7970082e-38 259 285
-0.068695597 0.653 -0.0515217 1.7786767e-38 260 285
-0.06744723 0.65200001 -0.051442798 1.7694571e-38 261 285
-0.066304058 0.65200001 -0.051442798 1.760165e-38 262 285
-0.065160878 0.65200001 -0.051442798 1.7509454e-38 263 285
-0.064017706 0.65200001 -0.051442798 1.7600568e-38 264 285
-0.062874533 0.65200001 -0.051442798 1.7600568e-38 265 285
-0.061731357 0.65200001 -0.051442798 1.7600571e-38 266 285
-0.060588185 0.65200001 -0.051442798 1.7692766e-38 267 285
-0.059445009 0.65200001 -0.051442798 1.7417258e-38 268 285
-0.058301836 0.65200001 -0.051442798 1.7417258e-38 269 285
-0.057158668 0.65200001 -0.051442798 1.7509454e-38 270 285
-0.055843662 0.64999998 -0.051284995 1.7417258e-38 271 285
-0.054703996 0.64999998 -0.051284995 1.7417258e-38 272 285
-0.053729147 0.65200001 -0.051442798 1.7417258e-38 273 285
-0.052424666 0.64999998 -0.051284995 1.7600574e-38 274 285
-0.051284995 0.64999998 -0.051284995 1.7416542e-38 275 285
-0.050068185 0.64899999 -0.051206097 1.7417261e-38 276 285
-0.048930272 0.64899999 -0.051206097 1.7324707e-38 277 285
-0.047792356 0.64899999 -0.051206097 1.7324341e-38 278 285
-0.046654444 0.64899999 -0.051206097 1.7232146e-38 279 285
-0.045516532 0.64899999 -0.051206097 1.7324341e-38 280 285
-0.044378616 0.64899999 -0.051206097 1.7416537e-38 281 285
-0.043240704 0.64899999 -0.051206097 1.7323988e-38 282 285
-0.042102791 0.64899999 -0.051206097 1.7416542e-38 283 285
-0.040964879 0.64899999 -0.051206097 1.7416908e-38 284 285
-0.039826967 0.64899999 -0.051206097 1.7416908e-38 285 285
-0.038689051 0.64899999 -0.051206097 1.723324e-38 286 285
-0.037551139 0.64899999 -0.051206097 1.723324e-38 287 285
-0.036413226 0.64899999 -0.051206097 1.7417624e-38 288 285
-0.03527531 0.64899999 -0.051206097 1.7233593e-38 289 285
-0.034137398 0.64899999 -0.051206097 1.732471e-38 290 285
-0.032999486 0.64899999 -0.051206097 1.7232514e-38 291 285
-0.031812482 0.648 -0.051127199 1.7323988e-38 292 285
-0.03067632 0.648 -0.051127199 1.7231792e-38 293 285
-0.029540159 0.648 -0.051127199 1.7048846e-38 294 285
-0.028404001 0.648 -0.051127199 1.7048846e-38 295 285
-0.02726784 0.648 -0.051127199 1.6773351e-38 296 285
-0.02613168 0.648 -0.051127199 1.6773351e-38 297 285
-0.024995521 0.648 -0.051127199 1.7048142e-38 298 285
-0.023859359 0.648 -0.051127199 1.6955947e-38 299 285
-0.022758266 0.64899999 -0.051206097 1.6955947e-38 300 285
-0.021620352 0.64899999 -0.051206097 1.686375e-38 301 285
-0.020450879 0.648 -0.051127199 1.6680086e-38 302 285
-0.019314719 0.648 -0.051127199 1.6680086e-38 303 285
-0.01817856 0.648 -0.051127199 1.6495688e-38 304 285
-0.0170424 0.648 -0.051127199 1.6219461e-38 305 285
-0.015906241 0.648 -0.051127199 1.5945025e-38 306 285
-0.014770079 0.648 -0.051127199 1.5945025e-38 307 285
-0.013654959 0.64899999 -0.051206097 1.5759204e-38 308 285
-0.012517046 0.64899999 -0.051206097 1.5667009e-38 309 285
-0.011379133 0.64899999 -0.051206097 1.5667006e-38 310 285
-0.01024122 0.64899999 -0.051206097 1.5667006e-38 311 285
-0.0091033066 0.64899999 -0.051206097 1.5391861e-38 312 285
-0.0079776663 0.64999998 -0.051284995 1.520747e-38 313 285
-0.0068379994 0.64999998 -0.051284995 1.5116356e-38 314 285
-0.005698333 0.64999998 -0.051284995 1.5116356e-38 315 285
-0.0045586661 0.64999998 -0.051284995 1.5299668e-38 316 285
-0.0034189997 0.64999998 -0.051284995 1.5207472e-38 317 285
-0.0022863466 0.65200001 -0.051442798 1.5115277e-38 318 285
-0.0011431733 0.65200001 -0.051442798 1.5207472e-38 319 285
0 0.65200001 -0.051442798 1.493089e-38 320 285
0.0011431733 0.65200001 -0.051442798 1.5114921e-38 321 285
0.0022863466 0.65200001 -0.051442798 1.483941e-38 322 285
0.0034295199 0.65200001 -0.051442798 1.483941e-38 323 285
0.0045797066 0.653 -0.0515217 1.4563548e-38 324 285
0.0057158666 0.65200001 -0.051442798 1.4563548e-38 325 285
0.0068590399 0.65200001 -0.051442798 1.4563551e-38 326 285
0.0080144862 0.653 -0.0515217 1.4471355e-38 327 285
0.0091594132 0.653 -0.0515217 1.4378788e-38 328 285
0.010304339 0.653 -0.0515217 1.4194397e-38 329 285
0.011449266 0.653 -0.0515217 1.3918163e-38 330 285
0.012613479 0.65399998 -0.051600594 1.3825967e-38 331 285
0.013760159 0.65399998 -0.051600594 1.3732712e-38 332 285
0.014906839 0.65399998 -0.051600594 1.3640517e-38 333 285
0.016078066 0.65499997 -0.051679496 1.327211e-38 334 285
0.017226499 0.65499997 -0.051679496 1.327211e-38 335 285
0.01843104 0.65700001 -0.051837299 1.3087358e-38 336 285
0.019582979 0.65700001 -0.051837299 1.2995163e-38 337 285
0.02076648 0.65799999 -0.051916201 1.2995519e-38 338 285
0.021920172 0.65799999 -0.051916201 1.2718933e-38 339 285
0.023108931 0.65899998 -0.051995095 1.2810053e-38 340 285
0.024264378 0.65899998 -0.051995095 1.2349074e-38 341 285
0.025496973 0.66100001 -0.052152898 1.2163613e-38 342 285
0.026655925 0.66100001 -0.052152898 1.1702636e-38 343 285
0.027856959 0.662 -0.0522318 1.1334948e-38 344 285
0.02910533 0.66399997 -0.052389596 1.1519339e-38 345 285
0.030269546 0.66399997 -0.052389596 1.1890638e-38 346 285
0.031528439 0.66600001 -0.052547399 1.2259422e-38 347 285
0.032696161 0.66600001 -0.052547399 1.2812219e-38 348 285
0.033914726 0.667 -0.052626297 1.2996612e-38 349 285
0.035136797 0.66799998 -0.052705199 1.2814371e-38 350 285
0.036416732 0.67000002 -0.052863002 1.2814371e-38 351 285
0.037647571 0.671 -0.052941896 1.308916e-38 352 285
0.038824059 0.671 -0.052941896 1.3181356e-38 353 285
0.040000543 0.671 -0.052941896 1.3181362e-38 354 285
0.041238401 0.67199999 -0.053020798 1.3181362e-38 355 285
0.042542879 0.67400002 -0.053178601 1.3089176e-38 356 285
0.043724626 0.67400002 -0.053178601 1.3273926e-38 357 285
0.045039624 0.676 -0.053336397 1.2906232e-38 358 285
-0.093591176 0.65899998 -0.053150542 1.7424254e-38 239 286
-0.09229546 0.65799999 -0.05306989 1.6777065e-38 240 286
-0.091141768 0.65799999 -0.05306989 1.6131696e-38 241 286
-0.090124831 0.65899998 -0.053150542 1.5670326e-38 242 286
-0.089239404 0.66100001 -0.053311851 1.5301543e-38 243 286
-0.087813944 0.65899998 -0.053150542 1.5577722e-38 244 286
-0.086658493 0.65899998 -0.053150542 1.5577722e-38 245 286
-0.085762545 0.66100001 -0.053311851 1.6680802e-38 246 286
-0.084603593 0.66100001 -0.053311851 1.6680802e-38 247 286
-0.08306592 0.65799999 -0.05306989 1.7141766e-38 248 286
-0.081538759 0.65499997 -0.052827932 1.7233962e-38 249 286
-0.080267593 0.65399998 -0.052747279 1.7692413e-38 250 286
-0.078999937 0.653 -0.052666627 1.7877165e-38 251 286
-0.077855013 0.653 -0.052666627 1.7694571e-38 252 286
-0.076710083 0.653 -0.052666627 1.7694571e-38 253 286
-0.075565159 0.653 -0.052666627 1.7970076e-38 254 286
-0.074420229 0.653 -0.052666627 1.769385e-38 255 286
-0.073275305 0.653 -0.052666627 1.7693122e-38 256 286
-0.072130375 0.653 -0.052666627 1.7416537e-38 257 286
-0.070985451 0.653 -0.052666627 1.7232146e-38 258 286
-0.069733568 0.65200001 -0.052585974 1.7139949e-38 259 286
-0.068590395 0.65200001 -0.052585974 1.6588574e-38 260 286
-0.06744723 0.65200001 -0.052585974 1.6404183e-38 261 286
-0.066304058 0.65200001 -0.052585974 1.6678598e-38 262 286
-0.065160878 0.65200001 -0.052585974 1.6494208e-38 263 286
-0.064017706 0.65200001 -0.052585974 1.6402365e-38 264 286
-0.062874533 0.65200001 -0.052585974 1.6402365e-38 265 286
-0.061731357 0.65200001 -0.052585974 1.612687e-38 266 286
-0.060588185 0.65200001 -0.052585974 1.6219066e-38 267 286
-0.059445009 0.65200001 -0.052585974 1.6219068e-38 268 286
-0.058301836 0.65200001 -0.052585974 1.6126873e-38 269 286
-0.056983333 0.64999998 -0.052424666 1.6219068e-38 270 286
-0.05575775 0.64899999 -0.052344013 1.6403461e-38 271 286
-0.054619838 0.64899999 -0.052344013 1.6586773e-38 272 286
-0.053481925 0.64899999 -0.052344013 1.6494576e-38 273 286
-0.052424666 0.64999998 -0.052424666 1.6769724e-38 274 286
-0.051206097 0.64899999 -0.052344013 1.6861921e-38 275 286
-0.050068185 0.64899999 -0.052344013 1.6311984e-38 276 286
-0.04885488 0.648 -0.05226336 1.6311984e-38 277 286
-0.047718719 0.648 -0.05226336 1.6311261e-38 278 286
-0.046582561 0.648 -0.05226336 1.6587848e-38 279 286
-0.045516532 0.64899999 -0.052344013 1.6679325e-38 280 286
-0.044378616 0.64899999 -0.052344013 1.6771521e-38 281 286
-0.043174081 0.648 -0.05226336 1.6678972e-38 282 286
-0.042037919 0.648 -0.05226336 1.6771167e-38 283 286
-0.040901758 0.648 -0.05226336 1.6679693e-38 284 286
-0.039826967 0.64899999 -0.052344013 1.6679693e-38 285 286
-0.038689051 0.64899999 -0.052344013 1.677117e-38 286 286
-0.037493281 0.648 -0.05226336 1.6678975e-38 287 286
-0.03635712 0.648 -0.05226336 1.6311984e-38 288 286
-0.035220958 0.648 -0.05226336 1.6311984e-38 289 286
-0.034084801 0.648 -0.05226336 1.6587492e-38 290 286
-0.032948639 0.648 -0.05226336 1.6587492e-38 291 286
-0.031812482 0.648 -0.05226336 1.6403827e-38 292 286
-0.030628979 0.64700001 -0.052182708 1.6403827e-38 293 286
-0.029494572 0.64700001 -0.052182708 1.6404198e-38 294 286
-0.028360168 0.64700001 -0.052182708 1.6496394e-38 295 286
-0.027225759 0.64700001 -0.052182708 1.6771188e-38 296 286
-0.026091354 0.64700001 -0.052182708 1.6771188e-38 297 286
-0.024995521 0.648 -0.05226336 1.6954854e-38 298 286
-0.023859359 0.648 -0.05226336 1.6770464e-38 299 286
-0.0227232 0.648 -0.05226336 1.6678987e-38 300 286
-0.02158704 0.648 -0.05226336 1.6586792e-38 301 286
-0.020450879 0.648 -0.05226336 1.640276e-38 302 286
-0.019314719 0.648 -0.05226336 1.640276e-38 303 286
-0.01817856 0.648 -0.05226336 1.5943223e-38 304 286
-0.0170424 0.648 -0.05226336 1.5943223e-38 305 286
-0.015906241 0.648 -0.05226336 1.6126532e-38 306 286
-0.014770079 0.648 -0.05226336 1.5850306e-38 307 286
-0.013654959 0.64899999 -0.052344013 1.5941419e-38 308 286
-0.012517046 0.64899999 -0.052344013 1.5849224e-38 309 286
-0.011379133 0.64899999 -0.052344013 1.5573712e-38 310 286
-0.01024122 0.64899999 -0.052344013 1.5573712e-38 311 286
-0.0091033066 0.64899999 -0.052344013 1.5481516e-38 312 286
-0.0079653924 0.64899999 -0.052344013 1.5481516e-38 313 286
-0.0068274797 0.64899999 -0.052344013 1.5114536e-38 314 286
-0.0056895665 0.64899999 -0.052344013 1.5114536e-38 315 286
-0.0045516533 0.64899999 -0.052344013 1.5297851e-38 316 286
-0.0034137398 0.64899999 -0.052344013 1.5297851e-38 317 286
-0.0022793331 0.64999998 -0.052424666 1.5205658e-38 318 286
-0.0011396665 0.64999998 -0.052424666 1.5113103e-38 319 286
0 0.64999998 -0.052424666 1.4929797e-38 320 286
0.0011431733 0.65200001 -0.052585974 1.4929797e-38 321 286
0.0022863466 0.65200001 -0.052585974 1.465393e-38 322 286
0.0034295199 0.65200001 -0.052585974 1.4561735e-38 323 286
0.0045726933 0.65200001 -0.052585974 1.4469902e-38 324 286
0.0057158666 0.65200001 -0.052585974 1.4285871e-38 325 286
0.0068590399 0.65200001 -0.052585974 1.4376989e-38 326 286
0.0080022132 0.65200001 -0.052585974 1.4376989e-38 327 286
0.0091594132 0.653 -0.052666627 1.3641206e-38 328 286
0.010304339 0.653 -0.052666627 1.3179869e-38 329 286
0.011449266 0.653 -0.052666627 1.2995482e-38 330 286
0.012613479 0.65399998 -0.052747279 1.3364263e-38 331 286
0.013760159 0.65399998 -0.052747279 1.3454689e-38 332 286
0.014906839 0.65399998 -0.052747279 1.3269939e-38 333 286
0.016078066 0.65499997 -0.052827932 1.3269945e-38 334 286
0.017226499 0.65499997 -0.052827932 1.317739e-38 335 286
0.018374931 0.65499997 -0.052827932 1.2994434e-38 336 286
0.019582979 0.65700001 -0.052989237 1.290188e-38 337 286
0.02076648 0.65799999 -0.05306989 1.2810406e-38 338 286
0.021920172 0.65799999 -0.05306989 1.2626373e-38 339 286
0.023108931 0.65899998 -0.053150542 1.2258679e-38 340 286
0.024264378 0.65899998 -0.053150542 1.2074288e-38 341 286
0.025496973 0.66100001 -0.053311851 1.1705155e-38 342 286
0.026655925 0.66100001 -0.053311851 1.1336014e-38 343 286
0.027856959 0.662 -0.053392503 1.1151633e-38 344 286
0.02910533 0.66399997 -0.053553808 1.1797002e-38 345 286
0.030269546 0.66399997 -0.053553808 1.1891342e-38 346 286
0.031528439 0.66600001 -0.053715117 1.2444157e-38 347 286
0.032696161 0.66600001 -0.053715117 1.2812925e-38 348 286
0.033914726 0.667 -0.05379577 1.2905121e-38 349 286
0.035136797 0.66799998 -0.053876422 1.2905845e-38 350 286
0.036416732 0.67000002 -0.054037735 1.2905845e-38 351 286
0.037647571 0.671 -0.054118387 1.308916e-38 352 286
0.038824059 0.671 -0.054118387 1.3181356e-38 353 286
0.040060159 0.67199999 -0.054199036 1.3089163e-38 354 286
0.041361131 0.67400002 -0.054360349 1.2904412e-38 355 286
0.042606 0.67500001 -0.054441001 1.2535286e-38 356 286
0.043789499 0.67500001 -0.054441001 1.2350895e-38 357 286
-0.096193127 0.66100001 -0.054470807 1.705691e-38 237 287
-0.095034167 0.66100001 -0.054470807 1.6870686e-38 238 287
-0.093591176 0.65899998 -0.054305989 1.5764339e-38 239 287
-0.09229546 0.65799999 -0.054223582 1.5027438e-38 240 287
-0.091141768 0.65799999 -0.054223582 1.4289873e-38 241 287
-0.090124831 0.65899998 -0.054305989 1.438021e-38 242 287
-0.089239404 0.66100001 -0.054470807 1.438021e-38 243 287
-0.087813944 0.65899998 -0.054305989 1.5300327e-38 244 287
-0.086658493 0.65899998 -0.054305989 1.5669469e-38 245 287
-0.085503049 0.65899998 -0.054305989 1.6314133e-38 246 287
-0.084219612 0.65799999 -0.054223582 1.6775111e-38 247 287
-0.082939677 0.65700001 -0.054141179 1.7233959e-38 248 287
-0.081538759 0.65499997 -0.053976361 1.7233959e-38 249 287
-0.080267593 0.65399998 -0.053893957 1.750947e-38 250 287
-0.078999937 0.653 -0.05381155 1.750947e-38 251 287
-0.077855013 0.653 -0.05381155 1.7326157e-38 252 287
-0.076710083 0.653 -0.05381155 1.7326157e-38 253 287
-0.075565159 0.653 -0.05381155 1.7417261e-38 254 287
-0.074420229 0.653 -0.05381155 1.7324707e-38 255 287
-0.073163092 0.65200001 -0.053729147 1.7047747e-38 256 287
-0.07201992 0.65200001 -0.053729147 1.6679325e-38 257 287
-0.070876747 0.65200001 -0.053729147 1.6311617e-38 258 287
-0.069733568 0.65200001 -0.053729147 1.6219422e-38 259 287
-0.068590395 0.65200001 -0.053729147 1.5943205e-38 260 287
-0.067240328 0.64999998 -0.053564329 1.5851009e-38 261 287
-0.066100657 0.64999998 -0.053564329 1.5941407e-38 262 287
-0.064960994 0.64999998 -0.053564329 1.584921e-38 263 287
-0.063821331 0.64999998 -0.053564329 1.5482222e-38 264 287
-0.062681668 0.64999998 -0.053564329 1.5482222e-38 265 287
-0.061541997 0.64999998 -0.053564329 1.5298201e-38 266 287
-0.060402326 0.64999998 -0.053564329 1.5390755e-38 267 287
-0.059262663 0.64999998 -0.053564329 1.5573714e-38 268 287
-0.058122993 0.64999998 -0.053564329 1.5665911e-38 269 287
-0.056983333 0.64999998 -0.053564329 1.5390402e-38 270 287
-0.055671841 0.648 -0.053399518 1.5482599e-38 271 287
-0.05453568 0.648 -0.053399518 1.5850303e-38 272 287
-0.053399518 0.648 -0.053399518 1.5850303e-38 273 287
-0.052344013 0.64899999 -0.053481925 1.6034324e-38 274 287
-0.051127199 0.648 -0.053399518 1.6034324e-38 275 287
-0.049991041 0.648 -0.053399518 1.5667356e-38 276 287
-0.04885488 0.648 -0.053399518 1.5943942e-38 277 287
-0.047645077 0.64700001 -0.053317111 1.5942889e-38 278 287
-0.046510674 0.64700001 -0.053317111 1.6035085e-38 279 287
-0.0454464 0.648 -0.053399518 1.6310227e-38 280 287
-0.044310238 0.648 -0.053399518 1.6402423e-38 281 287
-0.043107454 0.64700001 -0.053317111 1.6310224e-38 282 287
-0.041973047 0.64700001 -0.053317111 1.6310224e-38 283 287
-0.04083864 0.64700001 -0.053317111 1.6127631e-38 284 287
-0.039704233 0.64700001 -0.053317111 1.6035435e-38 285 287
-0.038569827 0.64700001 -0.053317111 1.6127984e-38 286 287
-0.03743542 0.64700001 -0.053317111 1.6035788e-38 287 287
-0.036301013 0.64700001 -0.053317111 1.6035788e-38 288 287
-0.035166606 0.64700001 -0.053317111 1.6035788e-38 289 287
-0.0340322 0.64700001 -0.053317111 1.6126912e-38 290 287
-0.032897793 0.64700001 -0.053317111 1.6126912e-38 291 287
-0.031763386 0.64700001 -0.053317111 1.6035082e-38 292 287
-0.030628979 0.64700001 -0.053317111 1.6035082e-38 293 287
-0.029494572 0.64700001 -0.053317111 1.6035085e-38 294 287
-0.028360168 0.64700001 -0.053317111 1.6035085e-38 295 287
-0.027225759 0.64700001 -0.053317111 1.6035438e-38 296 287
-0.026091354 0.64700001 -0.053317111 1.5942884e-38 297 287
-0.024956945 0.64700001 -0.053317111 1.585212e-38 298 287
-0.023822539 0.64700001 -0.053317111 1.5667728e-38 299 287
-0.022688134 0.64700001 -0.053317111 1.5943237e-38 300 287
-0.021553727 0.64700001 -0.053317111 1.5759204e-38 301 287
-0.02041932 0.64700001 -0.053317111 1.5667006e-38 302 287
-0.019284913 0.64700001 -0.053317111 1.5667006e-38 303 287
-0.018150507 0.64700001 -0.053317111 1.5574442e-38 304 287
-0.0170424 0.648 -0.053399518 1.5482246e-38 305 287
-0.015906241 0.648 -0.053399518 1.5114907e-38 306 287
-0.014770079 0.648 -0.053399518 1.5114907e-38 307 287
-0.01363392 0.648 -0.053399518 1.5021639e-38 308 287
-0.01249776 0.648 -0.053399518 1.5021639e-38 309 287
-0.0113616 0.648 -0.053399518 1.4746129e-38 310 287
-0.01024122 0.64899999 -0.053481925 1.4653933e-38 311 287
-0.0091033066 0.64899999 -0.053481925 1.4654286e-38 312 287
-0.0079653924 0.64899999 -0.053481925 1.4654286e-38 313 287
-0.0068274797 0.64899999 -0.053481925 1.4469885e-38 314 287
-0.0056895665 0.64899999 -0.053481925 1.4562441e-38 315 287
-0.0045516533 0.64899999 -0.053481925 1.47454e-38 316 287
-0.0034137398 0.64899999 -0.053481925 1.47454e-38 317 287
-0.0022758266 0.64899999 -0.053481925 1.4194397e-38 318 287
-0.0011396665 0.64999998 -0.053564329 1.391781e-38 319 287
0 0.64999998 -0.053564329 1.4101831e-38 320 287
0.0011396665 0.64999998 -0.053564329 1.4101831e-38 321 287
0.0022793331 0.64999998 -0.053564329 1.391779e-38 322 287
0.0034189997 0.64999998 -0.053564329 1.391779e-38 323 287
0.0045726933 0.65200001 -0.053729147 1.3641924e-38 324 287
0.0057158666 0.65200001 -0.053729147 1.3549727e-38 325 287
0.0068590399 0.65200001 -0.053729147 1.3456111e-38 326 287
0.0080022132 0.65200001 -0.053729147 1.3456111e-38 327 287
0.0091594132 0.653 -0.05381155 1.3087714e-38 328 287
0.010304339 0.653 -0.05381155 1.2811488e-38 329 287
0.011449266 0.653 -0.05381155 1.2718939e-38 330 287
0.012613479 0.65399998 -0.053893957 1.2718939e-38 331 287
0.013760159 0.65399998 -0.053893957 1.2443075e-38 332 287
0.014906839 0.65399998 -0.053893957 1.2627106e-38 333 287
0.016078066 0.65499997 -0.053976361 1.2350875e-38 334 287
0.017226499 0.65499997 -0.053976361 1.2443072e-38 335 287
0.018374931 0.65499997 -0.053976361 1.2351228e-38 336 287
0.019582979 0.65700001 -0.054141179 1.2351228e-38 337 287
0.020734919 0.65700001 -0.054141179 1.2259033e-38 338 287
0.021920172 0.65799999 -0.054223582 1.2259033e-38 339 287
0.023108931 0.65899998 -0.054305989 1.2442698e-38 340 287
0.024264378 0.65899998 -0.054305989 1.2350502e-38 341 287
0.025496973 0.66100001 -0.054470807 1.2349428e-38 342 287
0.026696252 0.662 -0.054553211 1.1796254e-38 343 287
0.027899038 0.66299999 -0.054635618 1.1338518e-38 344 287
0.02910533 0.66399997 -0.054718021 1.1891692e-38 345 287
0.030269546 0.66399997 -0.054718021 1.2351593e-38 346 287
0.031528439 0.66600001 -0.054882839 1.2444147e-38 347 287
0.032745253 0.667 -0.054965243 1.2629257e-38 348 287
0.033914726 0.667 -0.054965243 1.2721453e-38 349 287
0.035136797 0.66799998 -0.05504765 1.2905848e-38 350 287
0.036416732 0.67000002 -0.055212468 1.2813653e-38 351 287
0.037647571 0.671 -0.055294871 1.2813302e-38 352 287
0.03888192 0.67199999 -0.055377278 1.2721105e-38 353 287
0.040060159 0.67199999 -0.055377278 1.2260494e-38 354 287
0.041361131 0.67400002 -0.055542093 1.1799516e-38 355 287
0.042669121 0.676 -0.055706903 1.1248165e-38 356 287
-0.09735208 0.66100001 -0.05562976 1.5854386e-38 236 288
-0.096193127 0.66100001 -0.05562976 1.3180713e-38 237 288
-0.095034167 0.66100001 -0.05562976 1.2998059e-38 238 288
-0.093875214 0.66100001 -0.05562976 1.2905864e-38 239 288
-0.092435725 0.65899998 -0.055461437 1.3367876e-38 240 288
-0.091280282 0.65899998 -0.055461437 1.392105e-38 241 288
-0.090124831 0.65899998 -0.055461437 1.4474574e-38 242 288
-0.089239404 0.66100001 -0.05562976 1.4751519e-38 243 288
-0.08768069 0.65799999 -0.055377278 1.594537e-38 244 288
-0.086526997 0.65799999 -0.055377278 1.6037924e-38 245 288
-0.085373305 0.65799999 -0.055377278 1.6499248e-38 246 288
-0.084219612 0.65799999 -0.055377278 1.6591445e-38 247 288
-0.082939677 0.65700001 -0.055293117 1.7142469e-38 248 288
-0.081538759 0.65499997 -0.055124797 1.7049915e-38 249 288
-0.08014486 0.653 -0.054956477 1.7600571e-38 250 288
-0.078999937 0.653 -0.054956477 1.741654e-38 251 288
-0.077735789 0.65200001 -0.054872319 1.7049182e-38 252 288
-0.076592617 0.65200001 -0.054872319 1.6772237e-38 253 288
-0.075449437 0.65200001 -0.054872319 1.6862987e-38 254 288
-0.074306265 0.65200001 -0.054872319 1.6402368e-38 255 288
-0.073163092 0.65200001 -0.054872319 1.6125777e-38 256 288
-0.07201992 0.65200001 -0.054872319 1.5756996e-38 257 288
-0.070876747 0.65200001 -0.054872319 1.5297813e-38 258 288
-0.069519661 0.64999998 -0.054703996 1.492903e-38 259 288
-0.068379998 0.64999998 -0.054703996 1.4928683e-38 260 288
-0.067240328 0.64999998 -0.054703996 1.4836487e-38 261 288
-0.066100657 0.64999998 -0.054703996 1.456027e-38 262 288
-0.064960994 0.64999998 -0.054703996 1.4468075e-38 263 288
-0.063821331 0.64999998 -0.054703996 1.4100364e-38 264 288
-0.062681668 0.64999998 -0.054703996 1.4192561e-38 265 288
-0.061541997 0.64999998 -0.054703996 1.4285125e-38 266 288
-0.060402326 0.64999998 -0.054703996 1.419293e-38 267 288
-0.059262663 0.64999998 -0.054703996 1.446844e-38 268 288
-0.058122993 0.64999998 -0.054703996 1.4376245e-38 269 288
-0.056808002 0.648 -0.05453568 1.4285128e-38 270 288
-0.055671841 0.648 -0.05453568 1.4469519e-38 271 288
-0.05453568 0.648 -0.05453568 1.48365e-38 272 288
-0.053399518 0.648 -0.05453568 1.48365e-38 273 288
-0.05226336 0.648 -0.05453568 1.4746101e-38 274 288
-0.051048297 0.64700001 -0.054451518 1.4838296e-38 275 288
-0.049913891 0.64700001 -0.054451518 1.502269e-38 276 288
-0.048779488 0.64700001 -0.054451518 1.5299276e-38 277 288
-0.047645077 0.64700001 -0.054451518 1.5573714e-38 278 288
-0.046510674 0.64700001 -0.054451518 1.5758107e-38 279 288
-0.045376267 0.64700001 -0.054451518 1.6308763e-38 280 288
-0.044241857 0.64700001 -0.054451518 1.6308763e-38 281 288
-0.043107454 0.64700001 -0.054451518 1.6126167e-38 282 288
-0.041973047 0.64700001 -0.054451518 1.6126167e-38 283 288
-0.04083864 0.64700001 -0.054451518 1.5758826e-38 284 288
-0.039704233 0.64700001 -0.054451518 1.5574795e-38 285 288
-0.038569827 0.64700001 -0.054451518 1.5942854e-38 286 288
-0.03743542 0.64700001 -0.054451518 1.5850659e-38 287 288
-0.036301013 0.64700001 -0.054451518 1.6033968e-38 288 288
-0.035166606 0.64700001 -0.054451518 1.6033968e-38 289 288
-0.0340322 0.64700001 -0.054451518 1.5850303e-38 290 288
-0.032897793 0.64700001 -0.054451518 1.5850303e-38 291 288
-0.031763386 0.64700001 -0.054451518 1.5849955e-38 292 288
-0.030628979 0.64700001 -0.054451518 1.5849955e-38 293 288
-0.029494572 0.64700001 -0.054451518 1.5849599e-38 294 288
-0.028360168 0.64700001 -0.054451518 1.5849599e-38 295 288
-0.027225759 0.64700001 -0.054451518 1.5849952e-38 296 288
-0.026091354 0.64700001 -0.054451518 1.5757757e-38 297 288
-0.024956945 0.64700001 -0.054451518 1.5482965e-38 298 288
-0.023822539 0.64700001 -0.054451518 1.5482965e-38 299 288
-0.022688134 0.64700001 -0.054451518 1.5482249e-38 300 288
-0.021553727 0.64700001 -0.054451518 1.5482249e-38 301 288
-0.020387759 0.64600003 -0.05436736 1.5390399e-38 302 288
-0.019255107 0.64600003 -0.05436736 1.5298204e-38 303 288
-0.018150507 0.64700001 -0.054451518 1.5296759e-38 304 288
-0.0170161 0.64700001 -0.054451518 1.5388955e-38 305 288
-0.015906241 0.648 -0.05453568 1.511381e-38 306 288
-0.014770079 0.648 -0.05453568 1.4652832e-38 307 288
-0.01363392 0.648 -0.05453568 1.4652115e-38 308 288
-0.01249776 0.648 -0.05453568 1.4652115e-38 309 288
-0.0113616 0.648 -0.05453568 1.4560639e-38 310 288
-0.01024122 0.64899999 -0.054619838 1.4560639e-38 311 288
-0.0091033066 0.64899999 -0.054619838 1.446809e-38 312 288
-0.0079653924 0.64899999 -0.054619838 1.446809e-38 313 288
-0.0068274797 0.64899999 -0.054619838 1.4192582e-38 314 288
-0.0056895665 0.64899999 -0.054619838 1.4100028e-38 315 288
-0.0045516533 0.64899999 -0.054619838 1.4099307e-38 316 288
-0.0034137398 0.64899999 -0.054619838 1.4007112e-38 317 288
-0.0022758266 0.64899999 -0.054619838 1.3456096e-38 318 288
-0.0011379133 0.64899999 -0.054619838 1.3363542e-38 319 288
0 0.64999998 -0.054703996 1.3179866e-38 320 288
0.0011396665 0.64999998 -0.054703996 1.2903638e-38 321 288
0.0022793331 0.64999998 -0.054703996 1.3087306e-38 322 288
0.0034189997 0.64999998 -0.054703996 1.2994752e-38 323 288
0.0045586661 0.64999998 -0.054703996 1.2903641e-38 324 288
0.005698333 0.64999998 -0.054703996 1.2811445e-38 325 288
0.0068590399 0.65200001 -0.054872319 1.2903655e-38 326 288
0.0080022132 0.65200001 -0.054872319 1.2811458e-38 327 288
0.0091453865 0.65200001 -0.054872319 1.2811108e-38 328 288
0.010304339 0.653 -0.054956477 1.2627077e-38 329 288
0.011466799 0.65399998 -0.055040635 1.2810036e-38 330 288
0.012613479 0.65399998 -0.055040635 1.2810036e-38 331 288
0.013760159 0.65399998 -0.055040635 1.262637e-38 332 288
0.014906839 0.65399998 -0.055040635 1.2534175e-38 333 288
0.016078066 0.65499997 -0.055124797 1.2534172e-38 334 288
0.017226499 0.65499997 -0.055124797 1.2534172e-38 335 288
0.018374931 0.65499997 -0.055124797 1.2442692e-38 336 288
0.019582979 0.65700001 -0.055293117 1.2442692e-38 337 288
0.020734919 0.65700001 -0.055293117 1.2351581e-38 338 288
0.021920172 0.65799999 -0.055377278 1.2351581e-38 339 288
0.023108931 0.65899998 -0.055461437 1.2259749e-38 340 288
0.024264378 0.65899998 -0.055461437 1.2259749e-38 341 288
0.025496973 0.66100001 -0.05562976 1.2442698e-38 342 288
0.026696252 0.662 -0.055713918 1.2442698e-38 343 288
0.027941117 0.66399997 -0.055882234 1.2351581e-38 344 288
0.02910533 0.66399997 -0.055882234 1.2443778e-38 345 288
0.030360719 0.66600001 -0.056050558 1.2536696e-38 346 288
0.03157578 0.667 -0.056134716 1.2812922e-38 347 288
0.032745253 0.667 -0.056134716 1.2629257e-38 348 288
0.033914726 0.667 -0.056134716 1.2721453e-38 349 288
0.035136797 0.66799998 -0.056218877 1.2812572e-38 350 288
0.036416732 0.67000002 -0.056387197 1.2812572e-38 351 288
0.037647571 0.671 -0.056471359 1.2719304e-38 352 288
0.038824059 0.671 -0.056471359 1.2442719e-38 353 288
0.040060159 0.67199999 -0.056555521 1.143003e-38 354 288
0.041483864 0.676 -0.056892153 1.0784661e-38 355 288
-0.098660067 0.662 -0.056874625 1.4292839e-38 235 289
-0.09735208 0.66100001 -0.056788713 1.2815861e-38 236 289
-0.096193127 0.66100001 -0.056788713 1.1432927e-38 237 289
-0.095034167 0.66100001 -0.056788713 1.2262267e-38 238 289
-0.093591176 0.65899998 -0.056616884 1.2723605e-38 239 289
-0.092435725 0.65899998 -0.056616884 1.3738091e-38 240 289
-0.091280282 0.65899998 -0.056616884 1.4106514e-38 241 289
-0.090124831 0.65899998 -0.056616884 1.4658249e-38 242 289
-0.088834383 0.65799999 -0.056530971 1.5119227e-38 243 289
-0.08768069 0.65799999 -0.056530971 1.6130488e-38 244 289
-0.086395502 0.65700001 -0.056445058 1.6130488e-38 245 289
-0.08524356 0.65700001 -0.056445058 1.6406346e-38 246 289
-0.084091611 0.65700001 -0.056445058 1.6406346e-38 247 289
-0.082687192 0.65499997 -0.056273226 1.6589296e-38 248 289
-0.081414275 0.65399998 -0.056187313 1.6404546e-38 249 289
-0.08014486 0.653 -0.056101404 1.6589649e-38 250 289
-0.078878954 0.65200001 -0.056015491 1.6404899e-38 251 289
-0.077735789 0.65200001 -0.056015491 1.6678592e-38 252 289
-0.076592617 0.65200001 -0.056015491 1.6402365e-38 253 289
-0.075449437 0.65200001 -0.056015491 1.6125774e-38 254 289
-0.074078329 0.64999998 -0.055843662 1.5756993e-38 255 289
-0.072938658 0.64999998 -0.055843662 1.5204907e-38 256 289
-0.071798995 0.64999998 -0.055843662 1.4836484e-38 257 289
-0.070659332 0.64999998 -0.055843662 1.4560976e-38 258 289
-0.069519661 0.64999998 -0.055843662 1.4284029e-38 259 289
-0.068379998 0.64999998 -0.055843662 1.4192214e-38 260 289
-0.067240328 0.64999998 -0.055843662 1.4192214e-38 261 289
-0.066100657 0.64999998 -0.055843662 1.38238e-38 262 289
-0.064960994 0.64999998 -0.055843662 1.3731604e-38 263 289
-0.063821331 0.64999998 -0.055843662 1.3731601e-38 264 289
-0.062681668 0.64999998 -0.055843662 1.3731601e-38 265 289
-0.061541997 0.64999998 -0.055843662 1.3731248e-38 266 289
-0.060309403 0.64899999 -0.05575775 1.3731248e-38 267 289
-0.059080318 0.648 -0.055671841 1.3639771e-38 268 289
-0.05794416 0.648 -0.055671841 1.3639771e-38 269 289
-0.056808002 0.648 -0.055671841 1.3824521e-38 270 289
-0.055585928 0.64700001 -0.055585928 1.3916718e-38 271 289
-0.054451518 0.64700001 -0.055585928 1.4376245e-38 272 289
-0.053317111 0.64700001 -0.055585928 1.4376245e-38 273 289
-0.052182708 0.64700001 -0.055585928 1.4377324e-38 274 289
-0.051048297 0.64700001 -0.055585928 1.465355e-38 275 289
-0.049913891 0.64700001 -0.055585928 1.4562085e-38 276 289
-0.048779488 0.64700001 -0.055585928 1.465428e-38 277 289
-0.047645077 0.64700001 -0.055585928 1.5112753e-38 278 289
-0.046510674 0.64700001 -0.055585928 1.5297503e-38 279 289
-0.045376267 0.64700001 -0.055585928 1.5388251e-38 280 289
-0.044241857 0.64700001 -0.055585928 1.5572642e-38 281 289
-0.043107454 0.64700001 -0.055585928 1.539112e-38 282 289
-0.041908171 0.64600003 -0.055500012 1.539112e-38 283 289
-0.040775519 0.64600003 -0.055500012 1.5298572e-38 284 289
-0.039704233 0.64700001 -0.055585928 1.5114541e-38 285 289
-0.038510215 0.64600003 -0.055500012 1.539112e-38 286 289
-0.037377559 0.64600003 -0.055500012 1.5114891e-38 287 289
-0.036244906 0.64600003 -0.055500012 1.5573346e-38 288 289
-0.035112254 0.64600003 -0.055500012 1.5573346e-38 289 289
-0.0340322 0.64700001 -0.055585928 1.5298569e-38 290 289
-0.032897793 0.64700001 -0.055585928 1.5298569e-38 291 289
-0.031763386 0.64700001 -0.055585928 1.5297867e-38 292 289
-0.030628979 0.64700001 -0.055585928 1.5113835e-38 293 289
-0.029494572 0.64700001 -0.055585928 1.5021639e-38 294 289
-0.028360168 0.64700001 -0.055585928 1.5113835e-38 295 289
-0.02718368 0.64600003 -0.055500012 1.5021636e-38 296 289
-0.026051028 0.64600003 -0.055500012 1.5021636e-38 297 289
-0.024918374 0.64600003 -0.055500012 1.4654652e-38 298 289
-0.023785722 0.64600003 -0.055500012 1.4562456e-38 299 289
-0.022653066 0.64600003 -0.055500012 1.4562456e-38 300 289
-0.021553727 0.64700001 -0.055585928 1.4562456e-38 301 289
-0.020387759 0.64600003 -0.055500012 1.4562441e-38 302 289
-0.019255107 0.64600003 -0.055500012 1.4469885e-38 303 289
-0.018122453 0.64600003 -0.055500012 1.456027e-38 304 289
-0.0170161 0.64700001 -0.055585928 1.4652466e-38 305 289
-0.015881693 0.64700001 -0.055585928 1.4652113e-38 306 289
-0.014747286 0.64700001 -0.055585928 1.4283329e-38 307 289
-0.013612879 0.64700001 -0.055585928 1.3824153e-38 308 289
-0.01249776 0.648 -0.055671841 1.3639403e-38 309 289
-0.0113616 0.648 -0.055671841 1.3547563e-38 310 289
-0.010225439 0.648 -0.055671841 1.3455367e-38 311 289
-0.0090892799 0.648 -0.055671841 1.354721e-38 312 289
-0.0079531204 0.648 -0.055671841 1.3455014e-38 313 289
-0.0068169599 0.648 -0.055671841 1.3454661e-38 314 289
-0.0056807999 0.648 -0.055671841 1.3085879e-38 315 289
-0.0045516533 0.64899999 -0.05575775 1.3086232e-38 316 289
-0.0034137398 0.64899999 -0.05575775 1.2994036e-38 317 289
-0.0022758266 0.64899999 -0.05575775 1.2902206e-38 318 289
-0.0011379133 0.64899999 -0.05575775 1.3086597e-38 319 289
0 0.64899999 -0.05575775 1.2811458e-38 320 289
0.0011379133 0.64899999 -0.05575775 1.2535231e-38 321 289
0.0022793331 0.64999998 -0.055843662 1.2718188e-38 322 289
0.0034189997 0.64999998 -0.055843662 1.2810742e-38 323 289
0.0045586661 0.64999998 -0.055843662 1.2351932e-38 324 289
0.005698333 0.64999998 -0.055843662 1.2351932e-38 325 289
0.0068379994 0.64999998 -0.055843662 1.2351576e-38 326 289
0.0080022132 0.65200001 -0.056015491 1.225938e-38 327 289
0.0091453865 0.65200001 -0.056015491 1.2443048e-38 328 289
0.010304339 0.653 -0.056101404 1.2443048e-38 329 289
0.011466799 0.65399998 -0.056187313 1.2259383e-38 330 289
0.012613479 0.65399998 -0.056187313 1.2259383e-38 331 289
0.013760159 0.65399998 -0.056187313 1.2351579e-38 332 289
0.014906839 0.65399998 -0.056187313 1.2259383e-38 333 289
0.016078066 0.65499997 -0.056273226 1.2167903e-38 334 289
0.017226499 0.65499997 -0.056273226 1.2167903e-38 335 289
0.018374931 0.65499997 -0.056273226 1.2167901e-38 336 289
0.019582979 0.65700001 -0.056445058 1.2260455e-38 337 289
0.02076648 0.65799999 -0.056530971 1.2260102e-38 338 289
0.021953486 0.65899998 -0.056616884 1.2352297e-38 339 289
0.023108931 0.65899998 -0.056616884 1.2627807e-38 340 289
0.02433802 0.66100001 -0.056788713 1.2627807e-38 341 289
0.025496973 0.66100001 -0.056788713 1.2535247e-38 342 289
0.026696252 0.662 -0.056874625 1.2535247e-38 343 289
0.027941117 0.66399997 -0.057046451 1.244413e-38 344 289
0.029192999 0.66600001 -0.057218276 1.2628163e-38 345 289
0.030360719 0.66600001 -0.057218276 1.2812204e-38 346 289
0.03157578 0.667 -0.057304189 1.2904399e-38 347 289
0.032745253 0.667 -0.057304189 1.262926e-38 348 289
0.033914726 0.667 -0.057304189 1.2536706e-38 349 289
0.035136797 0.66799998 -0.057390101 1.2535636e-38 350 289
0.036308024 0.66799998 -0.057390101 1.2259048e-38 351 289
0.037647571 0.671 -0.057647847 1.1798087e-38 352 289
0.038824059 0.671 -0.057647847 1.1244913e-38 353 289
0.040000543 0.671 -0.057647847 1.0785049e-38 354 289
-0.09982077 0.662 -0.058035329 1.4019494e-38 234 290
-0.098660067 0.662 -0.058035329 7.6583539e-39 235 290
-0.09735208 0.66100001 -0.057947662 9.1280288e-39 236 290
-0.096193127 0.66100001 -0.057947662 1.0787552e-38 237 290
-0.095034167 0.66100001 -0.057947662 1.1803447e-38 238 290
-0.093591176 0.65899998 -0.057772331 1.2448816e-38 239 290
-0.09229546 0.65799999 -0.057684667 1.3737735e-38 240 290
-0.091141768 0.65799999 -0.057684667 1.382993e-38 241 290
-0.089988075 0.65799999 -0.057684667 1.4748997e-38 242 290
-0.088834383 0.65799999 -0.057684667 1.5209974e-38 243 290
-0.087547436 0.65700001 -0.057596996 1.585318e-38 244 290
-0.086395502 0.65700001 -0.057596996 1.5945375e-38 245 290
-0.08524356 0.65700001 -0.057596996 1.6311984e-38 246 290
-0.083835632 0.65499997 -0.057421666 1.6127592e-38 247 290
-0.082687192 0.65499997 -0.057421666 1.5759517e-38 248 290
-0.081414275 0.65399998 -0.057333998 1.5759517e-38 249 290
-0.080022126 0.65200001 -0.057158668 1.5575495e-38 250 290
-0.078878954 0.65200001 -0.057158668 1.54833e-38 251 290
-0.077735789 0.65200001 -0.057158668 1.5389302e-38 252 290
-0.076357663 0.64999998 -0.056983333 1.5204911e-38 253 290
-0.075217992 0.64999998 -0.056983333 1.502015e-38 254 290
-0.074078329 0.64999998 -0.056983333 1.4651367e-38 255 290
-0.072938658 0.64999998 -0.056983333 1.4284032e-38 256 290
-0.071798995 0.64999998 -0.056983333 1.3915251e-38 257 290
-0.070659332 0.64999998 -0.056983333 1.3547557e-38 258 290
-0.069519661 0.64999998 -0.056983333 1.3455362e-38 259 290
-0.068379998 0.64999998 -0.056983333 1.3362817e-38 260 290
-0.067240328 0.64999998 -0.056983333 1.3362817e-38 261 290
-0.065998971 0.64899999 -0.056895666 1.3362112e-38 262 290
-0.064861059 0.64899999 -0.056895666 1.3362112e-38 263 290
-0.063723139 0.64899999 -0.056895666 1.2902587e-38 264 290
-0.062585227 0.64899999 -0.056895666 1.2994784e-38 265 290
-0.061447315 0.64899999 -0.056895666 1.2810039e-38 266 290
-0.060216483 0.648 -0.056808002 1.2902234e-38 267 290
-0.059080318 0.648 -0.056808002 1.2810386e-38 268 290
-0.057854742 0.64700001 -0.056720335 1.2902582e-38 269 290
-0.056720335 0.64700001 -0.056720335 1.2995854e-38 270 290
-0.055585928 0.64700001 -0.056720335 1.3088049e-38 271 290
-0.054451518 0.64700001 -0.056720335 1.3638702e-38 272 290
-0.053317111 0.64700001 -0.056720335 1.3730898e-38 273 290
-0.052182708 0.64700001 -0.056720335 1.364085e-38 274 290
-0.051048297 0.64700001 -0.056720335 1.3825241e-38 275 290
-0.049913891 0.64700001 -0.056720335 1.4008914e-38 276 290
-0.048779488 0.64700001 -0.056720335 1.410111e-38 277 290
-0.047645077 0.64700001 -0.056720335 1.4652481e-38 278 290
-0.046510674 0.64700001 -0.056720335 1.4744677e-38 279 290
-0.045376267 0.64700001 -0.056720335 1.4652837e-38 280 290
-0.044241857 0.64700001 -0.056720335 1.4560283e-38 281 290
-0.043040827 0.64600003 -0.056632672 1.4469166e-38 282 290
-0.041908171 0.64600003 -0.056632672 1.4745753e-38 283 290
-0.040775519 0.64600003 -0.056632672 1.4837583e-38 284 290
-0.039704233 0.64700001 -0.056720335 1.4745386e-38 285 290
-0.038510215 0.64600003 -0.056632672 1.4837577e-38 286 290
-0.037377559 0.64600003 -0.056632672 1.474538e-38 287 290
-0.036244906 0.64600003 -0.056632672 1.4928695e-38 288 290
-0.035112254 0.64600003 -0.056632672 1.4928695e-38 289 290
-0.033979602 0.64600003 -0.056632672 1.4837227e-38 290 290
-0.032846946 0.64600003 -0.056632672 1.4837227e-38 291 290
-0.031714294 0.64600003 -0.056632672 1.4837227e-38 292 290
-0.030581642 0.64600003 -0.056632672 1.4652834e-38 293 290
-0.029448988 0.64600003 -0.056632672 1.4285128e-38 294 290
-0.028316336 0.64600003 -0.056632672 1.4377324e-38 295 290
-0.02718368 0.64600003 -0.056632672 1.4285128e-38 296 290
-0.026051028 0.64600003 -0.056632672 1.4285128e-38 297 290
-0.024918374 0.64600003 -0.056632672 1.4192932e-38 298 290
-0.023785722 0.64600003 -0.056632672 1.4192932e-38 299 290
-0.022653066 0.64600003 -0.056632672 1.4192932e-38 300 290
-0.021553727 0.64700001 -0.056720335 1.4100737e-38 301 290
-0.020387759 0.64600003 -0.056632672 1.4008537e-38 302 290
-0.019255107 0.64600003 -0.056632672 1.4008537e-38 303 290
-0.018122453 0.64600003 -0.056632672 1.3639055e-38 304 290
-0.0170161 0.64700001 -0.056720335 1.3823446e-38 305 290
-0.015881693 0.64700001 -0.056720335 1.391385e-38 306 290
-0.014747286 0.64700001 -0.056720335 1.37291e-38 307 290
-0.013612879 0.64700001 -0.056720335 1.3086597e-38 308 290
-0.012478473 0.64700001 -0.056720335 1.2718175e-38 309 290
-0.0113616 0.648 -0.056808002 1.2717825e-38 310 290
-0.010225439 0.648 -0.056808002 1.2625629e-38 311 290
-0.0090892799 0.648 -0.056808002 1.2717474e-38 312 290
-0.0079531204 0.648 -0.056808002 1.262492e-38 313 290
-0.0068169599 0.648 -0.056808002 1.262492e-38 314 290
-0.0056807999 0.648 -0.056808002 1.2440527e-38 315 290
-0.0045516533 0.64899999 -0.056895666 1.2257215e-38 316 290
-0.0034137398 0.64899999 -0.056895666 1.2349412e-38 317 290
-0.0022758266 0.64899999 -0.056895666 1.2165382e-38 318 290
-0.0011379133 0.64899999 -0.056895666 1.2350134e-38 319 290
0 0.64899999 -0.056895666 1.2349781e-38 320 290
0.0011379133 0.64899999 -0.056895666 1.2349781e-38 321 290
0.0022793331 0.64999998 -0.056983333 1.2166468e-38 322 290
0.0034189997 0.64999998 -0.056983333 1.2166468e-38 323 290
0.0045586661 0.64999998 -0.056983333 1.2166466e-38 324 290
0.005698333 0.64999998 -0.056983333 1.2166466e-38 325 290
0.0068379994 0.64999998 -0.056983333 1.235085e-38 326 290
0.0080022132 0.65200001 -0.057158668 1.235085e-38 327 290
0.0091453865 0.65200001 -0.057158668 1.235085e-38 328 290
0.01032012 0.65399998 -0.057333998 1.235085e-38 329 290
0.011466799 0.65399998 -0.057333998 1.2167182e-38 330 290
0.012613479 0.65399998 -0.057333998 1.2259736e-38 331 290
0.013760159 0.65399998 -0.057333998 1.2259736e-38 332 290
0.014906839 0.65399998 -0.057333998 1.2351932e-38 333 290
0.016078066 0.65499997 -0.057421666 1.2260455e-38 334 290
0.017226499 0.65499997 -0.057421666 1.2260455e-38 335 290
0.018374931 0.65499997 -0.057421666 1.2351576e-38 336 290
0.019582979 0.65700001 -0.057596996 1.2351576e-38 337 290
0.02076648 0.65799999 -0.057684667 1.262781e-38 338 290
0.021953486 0.65899998 -0.057772331 1.262781e-38 339 290
0.023108931 0.65899998 -0.057772331 1.262781e-38 340 290
0.02433802 0.66100001 -0.057947662 1.262781e-38 341 290
0.025535546 0.662 -0.058035329 1.2443778e-38 342 290
0.026736578 0.66299999 -0.058122993 1.262781e-38 343 290
0.027941117 0.66399997 -0.05821066 1.2536696e-38 344 290
0.029192999 0.66600001 -0.058385998 1.2536696e-38 345 290
0.030360719 0.66600001 -0.058385998 1.2535989e-38 346 290
0.03157578 0.667 -0.058473662 1.2535989e-38 347 290
0.032745253 0.667 -0.058473662 1.2443438e-38 348 290
0.033914726 0.667 -0.058473662 1.2351242e-38 349 290
0.035136797 0.66799998 -0.058561329 1.1982834e-38 350 290
0.036308024 0.66799998 -0.058561329 1.1521857e-38 351 290
0.037479252 0.66799998 -0.058561329 1.0785405e-38 352 290
-0.10098148 0.662 -0.05919604 1.6595952e-38 233 291
-0.09982077 0.662 -0.05919604 1.1073533e-38 234 291
-0.098660067 0.662 -0.05919604 2.315308e-39 235 291
-0.09735208 0.66100001 -0.059106622 6.8245645e-39 236 291
-0.096193127 0.66100001 -0.059106622 9.5904334e-39 237 291
-0.095034167 0.66100001 -0.059106622 1.0697465e-38 238 291
-0.093591176 0.65899998 -0.058927774 1.1342834e-38 239 291
-0.09229546 0.65799999 -0.058838356 1.2263321e-38 240 291
-0.091141768 0.65799999 -0.058838356 1.2355516e-38 241 291
-0.089988075 0.65799999 -0.058838356 1.3182017e-38 242 291
-0.088699378 0.65700001 -0.058748938 1.3458964e-38 243 291
-0.087547436 0.65700001 -0.058748938 1.3918138e-38 244 291
-0.086395502 0.65700001 -0.058748938 1.4195083e-38 245 291
-0.084984057 0.65499997 -0.058570094 1.4468775e-38 246 291
-0.083835632 0.65499997 -0.058570094 1.4192187e-38 247 291
-0.082560956 0.65399998 -0.05848068 1.4007424e-38 248 291
-0.081289791 0.653 -0.058391262 1.4007424e-38 249 291
-0.080022126 0.65200001 -0.058301836 1.3825209e-38 250 291
-0.078878954 0.65200001 -0.058301836 1.3825209e-38 251 291
-0.077497326 0.64999998 -0.058122993 1.3915973e-38 252 291
-0.076357663 0.64999998 -0.058122993 1.3454995e-38 253 291
-0.075217992 0.64999998 -0.058122993 1.3360633e-38 254 291
-0.074078329 0.64999998 -0.058122993 1.3176241e-38 255 291
-0.072938658 0.64999998 -0.058122993 1.2809625e-38 256 291
-0.071798995 0.64999998 -0.058122993 1.3085853e-38 257 291
-0.070550621 0.64899999 -0.058033578 1.2994036e-38 258 291
-0.069412716 0.64899999 -0.058033578 1.2994036e-38 259 291
-0.068274796 0.64899999 -0.058033578 1.2717096e-38 260 291
-0.067136884 0.64899999 -0.058033578 1.2717096e-38 261 291
-0.065897278 0.648 -0.05794416 1.3084096e-38 262 291
-0.064761117 0.648 -0.05794416 1.3084096e-38 263 291
-0.063624963 0.648 -0.05794416 1.2808238e-38 264 291
-0.062488798 0.648 -0.05794416 1.2900434e-38 265 291
-0.06135264 0.648 -0.05794416 1.2808238e-38 266 291
-0.060216483 0.648 -0.05794416 1.2808238e-38 267 291
-0.058989145 0.64700001 -0.057854742 1.2808591e-38 268 291
-0.057854742 0.64700001 -0.057854742 1.2808591e-38 269 291
-0.056720335 0.64700001 -0.057854742 1.2901506e-38 270 291
-0.055585928 0.64700001 -0.057854742 1.2993701e-38 271 291
-0.054451518 0.64700001 -0.057854742 1.3086253e-38 272 291
-0.053317111 0.64700001 -0.057854742 1.317845e-38 273 291
-0.052182708 0.64700001 -0.057854742 1.3363547e-38 274 291
-0.051048297 0.64700001 -0.057854742 1.3455743e-38 275 291
-0.049913891 0.64700001 -0.057854742 1.3639408e-38 276 291
-0.048704095 0.64600003 -0.057765324 1.3639408e-38 277 291
-0.047571443 0.64600003 -0.057765324 1.3456093e-38 278 291
-0.046438787 0.64600003 -0.057765324 1.3640124e-38 279 291
-0.045306131 0.64600003 -0.057765324 1.3639052e-38 280 291
-0.044173479 0.64600003 -0.057765324 1.3731248e-38 281 291
-0.043040827 0.64600003 -0.057765324 1.3640127e-38 282 291
-0.041908171 0.64600003 -0.057765324 1.3456096e-38 283 291
-0.040775519 0.64600003 -0.057765324 1.3730872e-38 284 291
-0.039642867 0.64600003 -0.057765324 1.3730872e-38 285 291
-0.038510215 0.64600003 -0.057765324 1.3823424e-38 286 291
-0.037377559 0.64600003 -0.057765324 1.391562e-38 287 291
-0.036244906 0.64600003 -0.057765324 1.3731957e-38 288 291
-0.035112254 0.64600003 -0.057765324 1.3824153e-38 289 291
-0.033979602 0.64600003 -0.057765324 1.3914548e-38 290 291
-0.032846946 0.64600003 -0.057765324 1.3914548e-38 291 291
-0.031714294 0.64600003 -0.057765324 1.3823071e-38 292 291
-0.030581642 0.64600003 -0.057765324 1.3730875e-38 293 291
-0.029448988 0.64600003 -0.057765324 1.3455367e-38 294 291
-0.028316336 0.64600003 -0.057765324 1.3086585e-38 295 291
-0.02718368 0.64600003 -0.057765324 1.2994752e-38 296 291
-0.026051028 0.64600003 -0.057765324 1.3179502e-38 297 291
-0.024918374 0.64600003 -0.057765324 1.299619e-38 298 291
-0.023785722 0.64600003 -0.057765324 1.2903636e-38 299 291
-0.022653066 0.64600003 -0.057765324 1.2996187e-38 300 291
-0.021520413 0.64600003 -0.057765324 1.2903991e-38 301 291
-0.020387759 0.64600003 -0.057765324 1.3179149e-38 302 291
-0.019255107 0.64600003 -0.057765324 1.3179149e-38 303 291
-0.018122453 0.64600003 -0.057765324 1.3453236e-38 304 291
-0.016989801 0.64600003 -0.057765324 1.3361039e-38 305 291
-0.015881693 0.64700001 -0.057854742 1.2901859e-38 306 291
-0.014747286 0.64700001 -0.057854742 1.2717469e-38 307 291
-0.013612879 0.64700001 -0.057854742 1.2350481e-38 308 291
-0.012478473 0.64700001 -0.057854742 1.2350481e-38 309 291
-0.0113616 0.648 -0.05794416 1.2533446e-38 310 291
-0.010225439 0.648 -0.05794416 1.2349415e-38 311 291
-0.0090892799 0.648 -0.05794416 1.2349059e-38 312 291
-0.0079531204 0.648 -0.05794416 1.2349059e-38 313 291
-0.0068169599 0.648 -0.05794416 1.2349059e-38 314 291
-0.0056807999 0.648 -0.05794416 1.2256862e-38 315 291
-0.0045516533 0.64899999 -0.058033578 1.2165382e-38 316 291
-0.0034137398 0.64899999 -0.058033578 1.2257938e-38 317 291
